# .PCD v.7 - Point Cloud Data file format
VERSION .7
FIELDS x y z normal_x normal_y normal_z
SIZE 4 4 4 4 4 4
TYPE F F F F F F
COUNT 1 1 1 1 1 1
WIDTH 1353
HEIGHT 1
VIEWPOINT 0 0 0 1 0 0 0
POINTS 1353
DATA ascii
4.0026 1.582501 0.2427029 0 0 1
4.0026 1.846251 0.2427029 0 0 1
4.0026 1.055001 0.242703 0 0 0.9999999
4.0026 1.318751 0.242703 0 0 1
4.2701 1.318751 0.242703 0 0 1
3.4676 1.318751 0.242703 0 0 1
3.7351 1.318751 0.242703 0 0 1
3.4676 1.055001 0.242703 0 0 1
4.0026 2.893247E-08 0.2427031 0 0 1
4.0026 0.2637502 0.2427031 0 0 1
4.2701 0.2637502 0.2427031 0 0 1
3.4676 0.2637502 0.2427031 0 0 0.9999999
3.7351 0.2637502 0.2427031 0 0 1
3.4676 2.893247E-08 0.2427031 0 0 1
4.2701 0.7912505 0.242703 0 0 1
4.0026 0.5275003 0.2427031 0 0 1
4.0026 0.7912505 0.242703 0 0 1
2.3976 0.2637502 0.2427031 0 0 1
2.6651 0.2637502 0.2427031 0 0 1
2.3976 2.893247E-08 0.2427031 0 0 1
3.2001 0.7912505 0.242703 0 0 0.9999999
2.9326 0.5275003 0.2427031 0 0 1
2.9326 0.7912505 0.242703 0 0 1
2.9326 2.893247E-08 0.2427031 0 0 0.9999999
2.9326 0.2637502 0.2427031 0 0 0.9999999
3.2001 0.2637502 0.2427031 0 0 0.9999999
3.7351 0.7912505 0.242703 0 0 1
3.4676 0.5275003 0.2427031 0 0 0.9999999
3.4676 0.7912505 0.242703 0 0 1
2.3976 2.738752 0.2427028 0 0 0.9999999
2.1301 2.887501 0.2427028 0 0 1
2.9326 2.441251 0.2427028 0 0 1
2.6651 2.590002 0.2427028 0 0 1
2.1301 2.062501 0.2427029 0 0 1
2.3976 2.326252 0.2427029 0 0 1
2.3976 1.913751 0.2427029 0 0 1
3.7351 1.995001 0.2427029 0 0 1
3.2001 1.467501 0.242703 0 0 1
3.4676 1.731251 0.2427029 0 0 1
3.4676 2.143751 0.2427029 0 0 0.9999999
3.2001 2.292501 0.2427029 0 0 1
2.1301 0.4125003 0.2427031 0 0 1
2.3976 0.6762504 0.2427031 0 0 1
2.3976 1.501251 0.242703 0 0 1
2.3976 1.088751 0.242703 0 0 1
2.1301 1.237501 0.242703 0 0 1
2.6651 0.9400005 0.242703 0 0 1
2.9326 1.203751 0.242703 0 0 1
2.9326 2.028751 0.2427029 0 0 1
2.9326 1.616251 0.2427029 0 0 1
2.6651 1.765001 0.2427029 0 0 1
2.2901 3.300002 -3.257299 -1 0 0
2.2901 2.110001 -3.117299 -1 0 0
2.2901 2.110001 -2.107298 -1 0 0
2.2901 3.300002 0.08270264 -1 0 0
2.2901 -3.883003E-07 -3.257299 -1 0 0
2.2901 -3.716109E-07 -3.117299 -0.9999999 0 0
2.2901 -2.512095E-07 -2.107298 -1 0 0
2.2901 9.858969E-09 0.08270304 -1 0 0
2.1301 -3.883003E-07 -3.257299 0 -1 0
2.1301 -3.716109E-07 -3.117299 0 -1 0
2.2901 -3.883003E-07 -3.257299 0 -1 0
2.2901 -3.716109E-07 -3.117299 0 -1 0
2.1301 -3.716109E-07 -3.117299 0 0 1
2.1301 2.110001 -3.117299 0 0 1
2.2901 2.110001 -3.117299 0 0 1
2.2901 -3.716109E-07 -3.117299 0 0 1
2.1301 2.110001 -3.117299 0 -1 0
2.1301 2.110001 -2.107298 0 -1 0
2.2901 2.110001 -2.107298 0 -1 0
2.2901 2.110001 -3.117299 0 -1 0
2.1301 2.110001 -2.107298 0 0 -1
2.1301 -2.512095E-07 -2.107298 0 0 -1
2.2901 -2.512095E-07 -2.107298 0 0 -1
2.2901 2.110001 -2.107298 0 0 -1
2.1301 -2.512095E-07 -2.107298 0 -1 0
2.1301 9.858969E-09 0.08270304 0 -1 0
2.2901 -2.512095E-07 -2.107298 0 -1 0
2.2901 9.858969E-09 0.08270304 0 -1 0
2.2901 3.300002 0.08270264 0 0 1
2.2901 9.858969E-09 0.08270304 0 0 1
2.1301 9.858969E-09 0.08270304 0 0 1
2.1301 3.300002 0.08270264 0 0 1
2.2901 3.300002 -3.257299 0 1 0
2.2901 3.300002 0.08270264 0 1 0
2.1301 3.300002 0.08270264 0 1 0
2.1301 3.300002 -3.257299 0 1 0
2.1301 3.300002 -3.257299 0 0 -1
2.1301 -3.883003E-07 -3.257299 0 0 -1
2.2901 -3.883003E-07 -3.257299 0 0 -1
2.2901 3.300002 -3.257299 0 0 -1
2.1301 3.300002 -3.257299 1 0 0
2.1301 3.300002 0.08270264 1 0 0
2.1301 2.110001 -2.107298 1 0 0
2.1301 9.858969E-09 0.08270304 1 0 0
2.1301 2.110001 -3.117299 1 0 0
2.1301 -2.512095E-07 -2.107298 1 0 0
2.1301 -3.716109E-07 -3.117299 0.9999999 0 0
2.1301 -3.883003E-07 -3.257299 1 0 0
2.2901 2.705001 -3.187299 -1 0 0
2.2901 2.110001 -2.612299 -0.9999999 0 0
2.2901 2.705001 -2.682299 -1 0 0
2.2901 2.705001 -1.012298 -1 0 0
2.2901 3.300002 -1.587298 -1 0 0
2.2901 1.055 -2.107298 -0.9999999 0 0
2.2901 -1.206753E-07 -1.012298 -0.9999999 0 0
2.2901 1.055 -1.012298 -1 0 0
2.2901 1.650001 0.08270284 -1 0 0
2.2901 1.650001 -3.257299 -1 0 0
2.2901 1.055 -3.187299 -1 0 0
2.1301 3.300002 -1.587298 1 0 0
2.1301 2.705001 -1.012298 1 0 0
2.1301 2.705001 -2.682299 0.9999999 0 0
2.1301 1.650001 0.08270284 1 0 0
2.1301 1.055 -1.012298 1 0 0
2.1301 2.110001 -2.612299 0.9999999 0 0
2.1301 2.705001 -3.187299 1 0 0
2.1301 -1.206753E-07 -1.012298 0.9999999 0 0
2.1301 1.055 -2.107298 0.9999999 0 0
2.1301 1.055 -3.187299 1 0 0
2.1301 1.650001 -3.257299 1 0 0
2.2901 3.002501 -3.222299 -1 0 0
2.2901 2.705001 -2.934799 -1 0 0
2.2901 3.002501 -2.969799 -1 0 0
2.2901 2.110001 -2.864799 -0.9999999 0 0
2.2901 2.407501 -2.899799 -1 0 0
2.2901 2.407501 -3.152299 -1 0 0
2.2901 2.407501 -2.394799 -1 0 0
2.2901 2.407501 -2.647299 -0.9999999 0 0
2.2901 2.110001 -2.359799 -0.9999999 0 0
2.2901 3.002501 -2.134799 -1 0 0
2.2901 3.300002 -2.422299 -1 0 0
2.2901 2.407501 -1.559798 -1 0 0
2.2901 2.705001 -1.847298 -1 0 0
2.2901 3.300002 -0.7522979 -1 0 0
2.2901 3.002502 -1.299798 -1 0 0
2.2901 3.002502 -0.4647976 -1 0 0
2.2901 1.582501 -2.107298 -1 0 0
2.2901 1.055 -1.559798 -0.9999999 0 0
2.2901 1.582501 -1.559798 -1 0 0
2.2901 -1.859424E-07 -1.559798 -1 0 0
2.2901 0.5275001 -1.559798 -0.9999999 0 0
2.2901 0.5275 -2.107298 -0.9999999 0 0
2.2901 0.5275002 -0.4647973 -1 0 0
2.2901 0.5275002 -1.012298 -1 0 0
2.2901 -5.540815E-08 -0.4647973 -1 0 0
2.2901 2.177501 -0.4647976 -1 0 0
2.2901 2.475001 0.08270274 -0.9999999 0 0
2.2901 1.880001 -1.012298 -1 0 0
2.2901 0.8250005 0.08270293 -1 0 0
2.2901 1.352501 -0.4647975 -1 0 0
2.2901 1.880001 -3.187299 -1 0 0
2.2901 1.582501 -3.152299 -1 0 0
2.2901 2.475001 -3.257299 -1 0 0
2.2901 2.177501 -3.222299 -1 0 0
2.2901 0.5274999 -3.222299 -1 0 0
2.2901 1.3525 -3.222299 -1 0 0
2.2901 0.8250001 -3.257299 -1 0 0
2.1301 3.300002 -2.422299 1 0 0
2.1301 3.002501 -2.134799 1 0 0
2.1301 3.002501 -2.969799 1 0 0
2.1301 3.002502 -0.4647976 1 0 0
2.1301 3.002502 -1.299798 1 0 0
2.1301 3.300002 -0.7522979 1 0 0
2.1301 2.407501 -2.394799 1 0 0
2.1301 2.705001 -1.847298 1 0 0
2.1301 2.407501 -1.559798 1 0 0
2.1301 2.475001 0.08270274 0.9999999 0 0
2.1301 2.177501 -0.4647976 1 0 0
2.1301 0.5275002 -0.4647973 1 0 0
2.1301 1.352501 -0.4647975 1 0 0
2.1301 0.8250005 0.08270293 1 0 0
2.1301 1.880001 -1.012298 1 0 0
2.1301 1.582501 -1.559798 1 0 0
2.1301 2.705001 -2.934799 1 0 0
2.1301 3.002501 -3.222299 1 0 0
2.1301 2.110001 -2.359799 0.9999999 0 0
2.1301 2.407501 -2.647299 0.9999999 0 0
2.1301 2.407501 -3.152299 1 0 0
2.1301 2.407501 -2.899799 1 0 0
2.1301 2.110001 -2.864799 1 0 0
2.1301 1.055 -1.559798 0.9999999 0 0
2.1301 1.582501 -2.107298 1 0 0
2.1301 -5.540815E-08 -0.4647973 1 0 0
2.1301 0.5275002 -1.012298 1 0 0
2.1301 0.5275 -2.107298 0.9999999 0 0
2.1301 0.5275001 -1.559798 0.9999999 0 0
2.1301 -1.859424E-07 -1.559798 1 0 0
2.1301 1.582501 -3.152299 1 0 0
2.1301 1.880001 -3.187299 1 0 0
2.1301 0.8250001 -3.257299 1 0 0
2.1301 1.3525 -3.222299 1 0 0
2.1301 0.5274999 -3.222299 1 0 0
2.1301 2.177501 -3.222299 1 0 0
2.1301 2.475001 -3.257299 1 0 0
2.2901 1.846251 -2.107298 -0.9999999 0 0
2.2901 1.582501 -1.833548 -1 0 0
2.2901 1.846251 -1.833548 -1 0 0
2.2901 1.055 -1.833548 -1 0 0
2.2901 1.318751 -1.833548 -1 0 0
2.2901 1.31875 -2.107298 -1 0 0
2.2901 1.318751 -1.286048 -1 0 0
2.2901 1.318751 -1.559798 -1 0 0
2.2901 1.055 -1.286048 -0.9999999 0 0
2.2901 -2.185759E-07 -1.833548 -1 0 0
2.2901 0.2637499 -1.833548 -1 0 0
2.2901 0.2637499 -2.107298 -1 0 0
2.2901 0.26375 -1.286048 -0.9999999 0 0
2.2901 0.26375 -1.559798 -0.9999999 0 0
2.2901 -1.533088E-07 -1.286048 -1 0 0
2.2901 0.7912502 -2.107298 -1 0 0
2.2901 0.5275001 -1.833548 -0.9999999 0 0
2.2901 0.7912502 -1.833548 -1 0 0
2.2901 0.2637501 -0.1910472 -1 0 0
2.2901 0.2637501 -0.4647973 -1 0 0
2.2901 -2.277459E-08 -0.1910471 -1 0 0
2.2901 0.7912503 -1.012298 -1 0 0
2.2901 0.5275002 -0.7385475 -1 0 0
2.2901 0.7912503 -0.7385476 -1 0 0
2.2901 -8.804171E-08 -0.7385474 -1 0 0
2.2901 0.26375 -0.7385475 -1 0 0
2.2901 0.26375 -1.012298 -1 0 0
2.2901 0.7912503 -1.559798 -1 0 0
2.2901 0.5275002 -1.286048 -0.9999999 0 0
2.2901 0.7912503 -1.286048 -1 0 0
2.2901 3.151252 -0.1910475 -1 0 0
2.2901 2.738752 -0.1910475 -1 0 0
2.2901 2.887501 0.08270269 -1 0 0
2.2901 2.441251 -0.7385477 -1 0 0
2.2901 2.590002 -0.4647976 -1 0 0
2.2901 2.853752 -0.7385478 -1 0 0
2.2901 2.062501 0.08270279 -1 0 0
2.2901 2.326252 -0.1910474 -1 0 0
2.2901 1.913751 -0.1910474 -1 0 0
2.2901 1.995001 -1.559798 -0.9999999 0 0
2.2901 2.258751 -1.833548 -1 0 0
2.2901 1.467501 -1.012298 -1 0 0
2.2901 1.731251 -1.286048 -1 0 0
2.2901 2.556251 -1.286048 -1 0 0
2.2901 2.143751 -1.286048 -1 0 0
2.2901 2.292501 -1.012298 -1 0 0
2.2901 0.4125003 0.08270299 -1 0 0
2.2901 0.6762503 -0.1910472 -1 0 0
2.2901 1.501251 -0.1910473 -1 0 0
2.2901 1.088751 -0.1910473 -1 0 0
2.2901 1.237501 0.08270289 -1 0 0
2.2901 0.9400004 -0.4647974 -1 0 0
2.2901 1.20375 -0.7385476 -1 0 0
2.2901 2.028751 -0.7385477 -1 0 0
2.2901 1.616251 -0.7385477 -1 0 0
2.2901 1.765001 -0.4647975 -1 0 0
2.1301 2.887501 0.08270269 1 0 0
2.1301 2.738752 -0.1910475 1 0 0
2.1301 3.151252 -0.1910475 1 0 0
2.1301 1.913751 -0.1910474 1 0 0
2.1301 2.326252 -0.1910474 1 0 0
2.1301 2.062501 0.08270279 1 0 0
2.1301 2.853752 -0.7385478 1 0 0
2.1301 2.590002 -0.4647976 1 0 0
2.1301 2.441251 -0.7385477 1 0 0
2.1301 0.2637501 -0.1910472 1 0 0
2.1301 0.6762503 -0.1910472 1 0 0
2.1301 0.4125003 0.08270299 1 0 0
2.1301 1.20375 -0.7385476 1 0 0
2.1301 0.9400004 -0.4647974 1 0 0
2.1301 0.7912503 -0.7385476 1 0 0
2.1301 1.237501 0.08270289 1 0 0
2.1301 1.088751 -0.1910473 1 0 0
2.1301 1.501251 -0.1910473 1 0 0
2.1301 2.258751 -1.833548 1 0 0
2.1301 1.995001 -1.559798 0.9999999 0 0
2.1301 1.846251 -1.833548 1 0 0
2.1301 2.292501 -1.012298 1 0 0
2.1301 2.143751 -1.286048 1 0 0
2.1301 2.556251 -1.286048 1 0 0
2.1301 1.318751 -1.286048 1 0 0
2.1301 1.731251 -1.286048 0.9999999 0 0
2.1301 1.467501 -1.012298 1 0 0
2.1301 1.765001 -0.4647975 1 0 0
2.1301 1.616251 -0.7385477 1 0 0
2.1301 2.028751 -0.7385477 1 0 0
2.1301 1.582501 -1.833548 1 0 0
2.1301 1.846251 -2.107298 0.9999999 0 0
2.1301 1.055 -1.286048 0.9999999 0 0
2.1301 1.318751 -1.559798 0.9999999 0 0
2.1301 1.31875 -2.107298 1 0 0
2.1301 1.318751 -1.833548 1 0 0
2.1301 1.055 -1.833548 1 0 0
2.1301 -2.277459E-08 -0.1910471 1 0 0
2.1301 0.2637501 -0.4647973 1 0 0
2.1301 0.26375 -1.012298 1 0 0
2.1301 0.26375 -0.7385475 1 0 0
2.1301 -8.804171E-08 -0.7385474 1 0 0
2.1301 0.5275002 -0.7385475 1 0 0
2.1301 0.7912503 -1.012298 1 0 0
2.1301 0.2637499 -2.107298 1 0 0
2.1301 0.2637499 -1.833548 1 0 0
2.1301 -2.185759E-07 -1.833548 1 0 0
2.1301 0.7912502 -1.833548 1 0 0
2.1301 0.5275001 -1.833548 0.9999999 0 0
2.1301 0.7912502 -2.107298 1 0 0
2.1301 -1.533088E-07 -1.286048 1 0 0
2.1301 0.26375 -1.559798 0.9999999 0 0
2.1301 0.26375 -1.286048 0.9999999 0 0
2.1301 0.7912503 -1.286048 1 0 0
2.1301 0.5275002 -1.286048 0.9999999 0 0
2.1301 0.7912503 -1.559798 1 0 0
1.7301 3.300002 -3.417299 0 0 -1
1.7301 -4.073737E-07 -3.417299 0 0 -1
7.1101 -4.073737E-07 -3.417299 0 0 -1
7.1101 3.300002 -3.417299 0 0 -1
7.1101 3.300002 -3.417299 -1 0 0
7.1101 -4.073737E-07 -3.417299 -1 0 0
7.1101 -3.883003E-07 -3.257299 -1 0 0
7.1101 3.300002 -3.257299 -1 0 0
7.1101 3.300002 -3.257299 0 0 1
7.1101 -3.883003E-07 -3.257299 0 0 1
1.7301 -3.883003E-07 -3.257299 0 0 1
1.7301 3.300002 -3.257299 0 0 1
1.7301 3.300002 -3.257299 1 0 0
1.7301 -3.883003E-07 -3.257299 1 0 0
1.7301 -4.073737E-07 -3.417299 1 0 0
1.7301 3.300002 -3.417299 1 0 0
7.1101 -3.883003E-07 -3.257299 0 -1 0
7.1101 -4.073737E-07 -3.417299 0 -1 0
1.7301 -4.073737E-07 -3.417299 0 -1 0
1.7301 -3.883003E-07 -3.257299 0 -1 0
1.7301 3.300002 -3.417299 0 1 0
7.1101 3.300002 -3.417299 0 1 0
7.1101 3.300002 -3.257299 0 1 0
1.7301 3.300002 -3.257299 0 1 0
1.7301 1.650001 -3.417299 0 0 -1
4.4201 -4.073737E-07 -3.417299 0 0 -1
4.4201 1.650001 -3.417299 0 0 -0.9999999
4.4201 3.300002 -3.417299 0 0 -1
7.1101 1.650001 -3.417299 0 0 -1
7.1101 1.650001 -3.257299 0 0 1
4.4201 -3.883003E-07 -3.257299 0 0 1
4.4201 1.650001 -3.257299 0 0 0.9999999
4.4201 3.300002 -3.257299 0 0 1
1.7301 1.650001 -3.257299 0 0 1
1.7301 2.475001 -3.417299 0 0 -1
3.0751 1.650001 -3.417299 0 0 -0.9999999
3.0751 2.475001 -3.417299 0 0 -1
3.0751 -4.073737E-07 -3.417299 0 0 -1
3.0751 0.825 -3.417299 0 0 -1
1.7301 0.825 -3.417299 0 0 -1
5.7651 0.825 -3.417299 0 0 -1
4.4201 0.825 -3.417299 0 0 -1
5.7651 -4.073737E-07 -3.417299 0 0 -1
5.7651 3.300002 -3.417299 0 0 -1
5.7651 2.475001 -3.417299 0 0 -0.9999999
7.1101 2.475001 -3.417299 0 0 -1
4.4201 2.475001 -3.417299 0 0 -0.9999999
3.0751 3.300002 -3.417299 0 0 -1
7.1101 0.825 -3.417299 0 0 -0.9999999
5.7651 1.650001 -3.417299 0 0 -1
7.1101 2.475001 -3.257299 0 0 1
5.7651 1.650001 -3.257299 0 0 1
5.7651 2.475001 -3.257299 0 0 0.9999999
5.7651 -3.883003E-07 -3.257299 0 0 1
5.7651 0.8250001 -3.257299 0 0 1
7.1101 0.8250001 -3.257299 0 0 1
3.0751 0.8250001 -3.257299 0 0 1
4.4201 0.8250001 -3.257299 0 0 1
3.0751 -3.883003E-07 -3.257299 0 0 1
3.0751 3.300002 -3.257299 0 0 1
3.0751 2.475001 -3.257299 0 0 1
1.7301 2.475001 -3.257299 0 0 1
4.4201 2.475001 -3.257299 0 0 1
5.7651 3.300002 -3.257299 0 0 0.9999999
1.7301 0.8250001 -3.257299 0 0 1
3.0751 1.650001 -3.257299 0 0 0.9999999
1.7301 2.887501 -3.417299 0 0 -0.9999999
2.4026 2.475001 -3.417299 0 0 -0.9999999
2.4026 2.887501 -3.417299 0 0 -1
2.4026 1.650001 -3.417299 0 0 -0.9999999
2.4026 2.062501 -3.417299 0 0 -1
1.7301 2.062501 -3.417299 0 0 -0.9999999
3.7476 2.062501 -3.417299 0 0 -1
3.0751 2.062501 -3.417299 0 0 -1
3.7476 1.650001 -3.417299 0 0 -1
2.4026 -4.073737E-07 -3.417299 0 0 -1
2.4026 0.4124998 -3.417299 0 0 -0.9999999
1.7301 0.4124998 -3.417299 0 0 -1
3.7476 0.4124998 -3.417299 0 0 -1
3.0751 0.4124998 -3.417299 0 0 -0.9999999
3.7476 -4.073737E-07 -3.417299 0 0 -1
1.7301 1.2375 -3.417299 0 0 -1
2.4026 0.825 -3.417299 0 0 -1
2.4026 1.2375 -3.417299 0 0 -1
6.4376 0.4124998 -3.417299 0 0 -1
5.7651 0.4124998 -3.417299 0 0 -0.9999999
6.4376 -4.073737E-07 -3.417299 0 0 -1
4.4201 1.2375 -3.417299 0 0 -1
5.0926 0.825 -3.417299 0 0 -0.9999999
5.0926 1.2375 -3.417299 0 0 -1
5.0926 -4.073737E-07 -3.417299 0 0 -1
5.0926 0.4124998 -3.417299 0 0 -1
4.4201 0.4124998 -3.417299 0 0 -1
3.0751 1.2375 -3.417299 0 0 -1
3.7476 0.825 -3.417299 0 0 -1
3.7476 1.2375 -3.417299 0 0 -1
6.4376 3.300002 -3.417299 0 0 -1
6.4376 2.887501 -3.417299 0 0 -1
7.1101 2.887501 -3.417299 0 0 -1
5.0926 2.887501 -3.417299 0 0 -1
5.7651 2.887501 -3.417299 0 0 -1
5.0926 3.300002 -3.417299 0 0 -0.9999999
7.1101 2.062501 -3.417299 0 0 -1
6.4376 2.475001 -3.417299 0 0 -1
6.4376 2.062501 -3.417299 0 0 -0.9999999
3.0751 2.887501 -3.417299 0 0 -1
2.4026 3.300002 -3.417299 0 0 -1
4.4201 2.062501 -3.417299 0 0 -1
3.7476 2.475001 -3.417299 0 0 -1
3.7476 3.300002 -3.417299 0 0 -1
3.7476 2.887501 -3.417299 0 0 -1
4.4201 2.887501 -3.417299 0 0 -1
7.1101 0.4124998 -3.417299 0 0 -1
6.4376 0.825 -3.417299 0 0 -1
6.4376 1.650001 -3.417299 0 0 -1
6.4376 1.2375 -3.417299 0 0 -1
7.1101 1.2375 -3.417299 0 0 -1
5.7651 1.2375 -3.417299 0 0 -1
5.0926 1.650001 -3.417299 0 0 -1
5.0926 2.475001 -3.417299 0 0 -0.9999999
5.0926 2.062501 -3.417299 0 0 -1
5.7651 2.062501 -3.417299 0 0 -1
7.1101 2.887501 -3.257299 0 0 1
6.4376 2.475001 -3.257299 0 0 1
6.4376 2.887501 -3.257299 0 0 1
6.4376 1.650001 -3.257299 0 0 1
6.4376 2.062501 -3.257299 0 0 0.9999999
7.1101 2.062501 -3.257299 0 0 1
5.0926 2.062501 -3.257299 0 0 1
5.7651 2.062501 -3.257299 0 0 1
5.0926 1.650001 -3.257299 0 0 1
6.4376 -3.883003E-07 -3.257299 0 0 1
6.4376 0.4124998 -3.257299 0 0 1
7.1101 0.4124998 -3.257299 0 0 1
5.0926 0.4124998 -3.257299 0 0 1
5.7651 0.4124998 -3.257299 0 0 1
5.0926 -3.883003E-07 -3.257299 0 0 1
7.1101 1.2375 -3.257299 0 0 1
6.4376 0.8250001 -3.257299 0 0 1
6.4376 1.2375 -3.257299 0 0 1
2.4026 0.4124998 -3.257299 0 0 0.9999999
3.0751 0.4124998 -3.257299 0 0 1
2.4026 -3.883003E-07 -3.257299 0 0 1
4.4201 1.2375 -3.257299 0 0 0.9999999
3.7476 0.8250001 -3.257299 0 0 0.9999999
3.7476 1.2375 -3.257299 0 0 1
3.7476 -3.883003E-07 -3.257299 0 0 1
3.7476 0.4124998 -3.257299 0 0 1
4.4201 0.4124998 -3.257299 0 0 0.9999999
5.7651 1.2375 -3.257299 0 0 1
5.0926 0.8250001 -3.257299 0 0 0.9999999
5.0926 1.2375 -3.257299 0 0 1
2.4026 3.300002 -3.257299 0 0 1
2.4026 2.887501 -3.257299 0 0 1
1.7301 2.887501 -3.257299 0 0 1
3.7476 2.887501 -3.257299 0 0 1
3.0751 2.887501 -3.257299 0 0 1
3.7476 3.300002 -3.257299 0 0 1
1.7301 2.062501 -3.257299 0 0 1
2.4026 2.475001 -3.257299 0 0 1
2.4026 2.062501 -3.257299 0 0 1
5.7651 2.887501 -3.257299 0 0 1
6.4376 3.300002 -3.257299 0 0 1
4.4201 2.062501 -3.257299 0 0 1
5.0926 2.475001 -3.257299 0 0 0.9999999
5.0926 3.300002 -3.257299 0 0 1
5.0926 2.887501 -3.257299 0 0 1
4.4201 2.887501 -3.257299 0 0 1
1.7301 0.4124998 -3.257299 0 0 1
2.4026 0.8250001 -3.257299 0 0 1
2.4026 1.650001 -3.257299 0 0 0.9999999
2.4026 1.2375 -3.257299 0 0 1
1.7301 1.2375 -3.257299 0 0 1
3.0751 1.2375 -3.257299 0 0 1
3.7476 1.650001 -3.257299 0 0 1
3.7476 2.475001 -3.257299 0 0 1
3.7476 2.062501 -3.257299 0 0 1
3.0751 2.062501 -3.257299 0 0 1
1.8901 2.11 -6.927301 -1 0 0
1.8901 3.300001 -8.407303 -1 0 0
1.8901 -1.002228E-06 -8.407302 -1 0 0
1.8901 2.11 -5.917301 -0.9999999 0 0
1.8901 -8.257986E-07 -6.927301 -0.9999999 0 0
1.8901 3.300002 -3.417299 -0.9999999 0 0
1.8901 -7.053971E-07 -5.9173 -0.9999999 0 0
1.8901 -4.073737E-07 -3.417299 -1 0 0
1.7301 -1.002228E-06 -8.407302 0 -1 0
1.7301 -8.257986E-07 -6.927301 0 -1 0
1.8901 -1.002228E-06 -8.407302 0 -1 0
1.8901 -8.257986E-07 -6.927301 0 -1 0
1.7301 -8.257986E-07 -6.927301 0 0 1
1.7301 2.11 -6.927301 0 0 1
1.8901 2.11 -6.927301 0 0 1
1.8901 -8.257986E-07 -6.927301 0 0 1
1.7301 2.11 -6.927301 0 -1 0
1.7301 2.11 -5.917301 0 -1 0
1.8901 2.11 -5.917301 0 -1 0
1.8901 2.11 -6.927301 0 -1 0
1.7301 2.11 -5.917301 0 0 -1
1.7301 -7.053971E-07 -5.9173 0 0 -1
1.8901 -7.053971E-07 -5.9173 0 0 -1
1.8901 2.11 -5.917301 0 0 -1
1.7301 -7.053971E-07 -5.9173 0 -1 0
1.7301 -4.073737E-07 -3.417299 0 -1 0
1.8901 -7.053971E-07 -5.9173 0 -1 0
1.8901 -4.073737E-07 -3.417299 0 -1 0
1.8901 3.300002 -3.417299 0 0 1
1.8901 -4.073737E-07 -3.417299 0 0 1
1.7301 -4.073737E-07 -3.417299 0 0 1
1.7301 3.300002 -3.417299 0 0 1
1.8901 3.300001 -8.407303 0 0.9999999 0
1.8901 3.300002 -3.417299 0 0.9999999 0
1.7301 3.300002 -3.417299 0 0.9999999 0
1.7301 3.300001 -8.407303 0 0.9999999 0
1.7301 3.300001 -8.407303 0 0 -1
1.7301 -1.002228E-06 -8.407302 0 0 -1
1.8901 -1.002228E-06 -8.407302 0 0 -1
1.8901 3.300001 -8.407303 0 0 -1
1.7301 3.300002 -3.417299 0.9999999 0 0
1.7301 -4.073737E-07 -3.417299 1 0 0
1.7301 2.11 -5.917301 0.9999999 0 0
1.7301 2.11 -6.927301 1 0 0
1.7301 3.300001 -8.407303 1 0 0
1.7301 -7.053971E-07 -5.9173 0.9999999 0 0
1.7301 -8.257986E-07 -6.927301 0.9999999 0 0
1.7301 -1.002228E-06 -8.407302 1 0 0
1.8901 2.705001 -7.667302 -1 0 0
1.8901 1.65 -8.407302 -0.9999999 0 0
1.8901 1.055 -7.667302 -1 0 0
1.8901 2.11 -6.422301 -1 0 0
1.8901 2.705001 -7.162302 -0.9999999 0 0
1.8901 -9.140135E-07 -7.667302 -1 0 0
1.8901 1.055 -6.927301 -1 0 0
1.8901 2.705001 -4.6673 -1 0 0
1.8901 3.300001 -5.912301 -0.9999999 0 0
1.8901 1.055 -5.917301 -1 0 0
1.8901 -5.563854E-07 -4.6673 -1 0 0
1.8901 1.055 -4.6673 -1 0 0
1.8901 1.650001 -3.417299 -1 0 0
1.7301 1.650001 -3.417299 1 0 0
1.7301 1.055 -4.6673 1 0 0
1.7301 2.705001 -4.6673 1 0 0
1.7301 2.11 -6.422301 1 0 0
1.7301 2.705001 -7.667302 1 0 0
1.7301 2.705001 -7.162302 0.9999999 0 0
1.7301 3.300001 -5.912301 0.9999999 0 0
1.7301 -5.563854E-07 -4.6673 1 0 0
1.7301 1.055 -5.917301 1 0 0
1.7301 1.055 -6.927301 1 0 0
1.7301 -9.140135E-07 -7.667302 1 0 0
1.7301 1.055 -7.667302 1 0 0
1.7301 1.65 -8.407302 0.9999999 0 0
1.8901 2.4075 -7.297302 -1 0 0
1.8901 1.88 -7.667302 -0.9999999 0 0
1.8901 1.5825 -7.297302 -1 0 0
1.8901 2.475 -8.407303 -1 0 0
1.8901 2.1775 -8.037302 -1 0 0
1.8901 3.002501 -8.037302 -1 0 0
1.8901 0.5274993 -8.037302 -1 0 0
1.8901 1.3525 -8.037302 -0.9999999 0 0
1.8901 0.8249995 -8.407302 -0.9999999 0 0
1.8901 2.705001 -7.414802 -0.9999999 0 0
1.8901 3.002501 -7.784802 -1 0 0
1.8901 2.11 -6.674801 -1 0 0
1.8901 2.4075 -7.044801 -1 0 0
1.8901 2.407501 -6.539801 -1 0 0
1.8901 2.407501 -6.792302 -1 0 0
1.8901 2.11 -6.169801 -1 0 0
1.8901 1.055 -7.297302 -1 0 0
1.8901 1.5825 -6.927301 -1 0 0
1.8901 -9.581209E-07 -8.037302 -1 0 0
1.8901 0.5274994 -7.667302 -1 0 0
1.8901 0.5274994 -6.927301 -1 0 0
1.8901 0.5274994 -7.297302 -1 0 0
1.8901 -8.69906E-07 -7.297302 -1 0 0
1.8901 3.002501 -6.537302 -1 0 0
1.8901 3.300001 -7.159802 -1 0 0
1.8901 2.407501 -5.2923 -1 0 0
1.8901 2.705001 -5.914801 -1 0 0
1.8901 3.300001 -4.6648 -1 0 0
1.8901 3.002501 -5.2898 -1 0 0
1.8901 3.002501 -4.0423 -1 0 0
1.8901 1.5825 -5.917301 -1 0 0
1.8901 1.055 -5.2923 -1 0 0
1.8901 1.5825 -5.2923 -1 0 0
1.8901 -6.308912E-07 -5.2923 -1 0 0
1.8901 0.5274997 -5.2923 -1 0 0
1.8901 0.5274996 -5.917301 -1 0 0
1.8901 0.5274998 -4.042299 -1 0 0
1.8901 0.5274997 -4.6673 -1 0 0
1.8901 -4.818796E-07 -4.042299 -1 0 0
1.8901 2.177501 -4.0423 -0.9999999 0 0
1.8901 2.475001 -3.417299 -1 0 0
1.8901 1.88 -4.6673 -1 0 0
1.8901 0.825 -3.417299 -1 0 0
1.8901 1.3525 -4.042299 -1 0 0
1.7301 2.475001 -3.417299 1 0 0
1.7301 2.177501 -4.0423 0.9999999 0 0
1.7301 3.002501 -4.0423 1 0 0
1.7301 0.5274998 -4.042299 1 0 0
1.7301 1.3525 -4.042299 1 0 0
1.7301 0.825 -3.417299 1 0 0
1.7301 2.407501 -5.2923 1 0 0
1.7301 1.88 -4.6673 1 0 0
1.7301 1.5825 -5.2923 1 0 0
1.7301 2.11 -6.169801 1 0 0
1.7301 2.407501 -6.792302 1 0 0
1.7301 2.407501 -6.539801 1 0 0
1.7301 2.4075 -7.297302 1 0 0
1.7301 2.4075 -7.044801 1 0 0
1.7301 2.11 -6.674801 1 0 0
1.7301 3.002501 -7.784802 1 0 0
1.7301 2.705001 -7.414802 0.9999999 0 0
1.7301 3.002501 -8.037302 1 0 0
1.7301 3.002501 -5.2898 1 0 0
1.7301 3.300001 -4.6648 1 0 0
1.7301 2.705001 -5.914801 1 0 0
1.7301 3.300001 -7.159802 1 0 0
1.7301 3.002501 -6.537302 1 0 0
1.7301 1.055 -5.2923 1 0 0
1.7301 1.5825 -5.917301 1 0 0
1.7301 -4.818796E-07 -4.042299 1 0 0
1.7301 0.5274997 -4.6673 1 0 0
1.7301 0.5274996 -5.917301 1 0 0
1.7301 0.5274997 -5.2923 1 0 0
1.7301 -6.308912E-07 -5.2923 1 0 0
1.7301 1.5825 -6.927301 1 0 0
1.7301 1.055 -7.297302 1 0 0
1.7301 1.5825 -7.297302 1 0 0
1.7301 -8.69906E-07 -7.297302 1 0 0
1.7301 0.5274994 -7.297302 1 0 0
1.7301 0.5274994 -6.927301 1 0 0
1.7301 0.5274993 -8.037302 1 0 0
1.7301 0.5274994 -7.667302 1 0 0
1.7301 -9.581209E-07 -8.037302 1 0 0
1.7301 2.1775 -8.037302 1 0 0
1.7301 2.475 -8.407303 1 0 0
1.7301 1.88 -7.667302 0.9999999 0 0
1.7301 0.8249995 -8.407302 0.9999999 0 0
1.7301 1.3525 -8.037302 0.9999999 0 0
1.8901 3.151251 -8.096052 -1 0 0
1.8901 3.151251 -7.472302 -1 0 0
1.8901 3.300001 -7.783553 -0.9999999 0 0
1.8901 2.853751 -6.849802 -1 0 0
1.8901 3.002501 -7.161052 -1 0 0
1.8901 2.853751 -7.473552 -1 0 0
1.8901 3.300001 -6.536051 -1 0 0
1.8901 3.151251 -6.848551 -1 0 0
1.8901 3.151251 -6.224802 -1 0 0
1.8901 2.258751 -5.604801 -1 0 0
1.8901 2.407501 -5.916051 -1 0 0
1.8901 2.258751 -6.228551 -1 0 0
1.8901 2.705001 -5.29105 -1 0 0
1.8901 2.556251 -5.603551 -1 0 0
1.8901 2.556251 -4.9798 -1 0 0
1.8901 2.556251 -6.851051 -1 0 0
1.8901 2.556251 -6.227301 -1 0 0
1.8901 2.705001 -6.538551 -1 0 0
1.8901 3.300001 -4.04105 -0.9999999 0 0
1.8901 3.151251 -4.35355 -1 0 0
1.8901 3.151251 -3.7298 -1 0 0
1.8901 3.151251 -5.601051 -1 0 0
1.8901 3.151251 -4.9773 -1 0 0
1.8901 3.300001 -5.28855 -1 0 0
1.8901 2.853751 -4.3548 -1 0 0
1.8901 3.002501 -4.66605 -1 0 0
1.8901 2.853751 -4.97855 -1 0 0
1.8901 2.853751 -6.226051 -1 0 0
1.8901 2.853751 -5.602301 -1 0 0
1.8901 3.002501 -5.913551 -1 0 0
1.8901 1.84625 -5.917301 -1 0 0
1.8901 1.5825 -5.6048 -1 0 0
1.8901 1.84625 -5.6048 -1 0 0
1.8901 1.055 -5.6048 -1 0 0
1.8901 1.31875 -5.6048 -1 0 0
1.8901 1.31875 -5.917301 -1 0 0
1.8901 1.31875 -4.9798 -1 0 0
1.8901 1.31875 -5.2923 -1 0 0
1.8901 1.055 -4.9798 -1 0 0
1.8901 -6.681442E-07 -5.6048 -1 0 0
1.8901 0.2637495 -5.6048 -1 0 0
1.8901 0.2637495 -5.9173 -1 0 0
1.8901 0.2637495 -4.9798 -1 0 0
1.8901 0.2637495 -5.2923 -1 0 0
1.8901 -5.936383E-07 -4.9798 -1 0 0
1.8901 0.7912498 -5.917301 -1 0 0
1.8901 0.5274996 -5.6048 -1 0 0
1.8901 0.7912498 -5.6048 -1 0 0
1.8901 0.2637497 -3.729799 -1 0 0
1.8901 0.2637497 -4.042299 -1 0 0
1.8901 -4.446266E-07 -3.729799 -1 0 0
1.8901 0.7912499 -4.6673 -1 0 0
1.8901 0.5274998 -4.3548 -1 0 0
1.8901 0.7912499 -4.3548 -1 0 0
1.8901 -5.191325E-07 -4.354799 -1 0 0
1.8901 0.2637496 -4.3548 -1 0 0
1.8901 0.2637496 -4.6673 -1 0 0
1.8901 0.7912498 -5.2923 -1 0 0
1.8901 0.5274997 -4.9798 -1 0 0
1.8901 0.7912499 -4.9798 -1 0 0
1.8901 2.738751 -3.7298 -1 0 0
1.8901 2.887501 -3.417299 -1 0 0
1.8901 2.441251 -4.3548 -0.9999999 0 0
1.8901 2.590001 -4.0423 -1 0 0
1.8901 2.062501 -3.417299 -1 0 0
1.8901 2.326251 -3.729799 -0.9999999 0 0
1.8901 1.913751 -3.729799 -0.9999999 0 0
1.8901 1.995 -5.2923 -1 0 0
1.8901 1.4675 -4.6673 -1 0 0
1.8901 1.73125 -4.9798 -1 0 0
1.8901 2.14375 -4.9798 -1 0 0
1.8901 2.292501 -4.6673 -1 0 0
1.8901 0.4124998 -3.417299 -1 0 0
1.8901 0.6762499 -3.729799 -1 0 0
1.8901 1.501251 -3.729799 -1 0 0
1.8901 1.08875 -3.729799 -1 0 0
1.8901 1.2375 -3.417299 -1 0 0
1.8901 0.94 -4.042299 -1 0 0
1.8901 1.20375 -4.3548 -1 0 0
1.8901 2.028751 -4.3548 -1 0 0
1.8901 1.61625 -4.3548 -1 0 0
1.8901 1.765001 -4.042299 -1 0 0
1.7301 2.887501 -3.417299 1 0 0
1.7301 2.738751 -3.7298 1 0 0
1.7301 3.151251 -3.7298 1 0 0
1.7301 1.913751 -3.729799 0.9999999 0 0
1.7301 2.326251 -3.729799 1 0 0
1.7301 2.062501 -3.417299 1 0 0
1.7301 2.853751 -4.3548 1 0 0
1.7301 2.590001 -4.0423 0.9999999 0 0
1.7301 2.441251 -4.3548 0.9999999 0 0
1.7301 0.2637497 -3.729799 1 0 0
1.7301 0.6762499 -3.729799 1 0 0
1.7301 0.4124998 -3.417299 1 0 0
1.7301 1.20375 -4.3548 1 0 0
1.7301 0.94 -4.042299 1 0 0
1.7301 0.7912499 -4.3548 1 0 0
1.7301 1.2375 -3.417299 1 0 0
1.7301 1.08875 -3.729799 1 0 0
1.7301 1.501251 -3.729799 1 0 0
1.7301 2.258751 -5.604801 1 0 0
1.7301 1.995 -5.2923 1 0 0
1.7301 1.84625 -5.6048 1 0 0
1.7301 2.292501 -4.6673 1 0 0
1.7301 2.14375 -4.9798 1 0 0
1.7301 2.556251 -4.9798 1 0 0
1.7301 1.31875 -4.9798 1 0 0
1.7301 1.73125 -4.9798 1 0 0
1.7301 1.4675 -4.6673 1 0 0
1.7301 1.765001 -4.042299 1 0 0
1.7301 1.61625 -4.3548 1 0 0
1.7301 2.028751 -4.3548 1 0 0
1.7301 3.151251 -4.35355 1 0 0
1.7301 3.300001 -4.04105 0.9999999 0 0
1.7301 2.853751 -4.97855 1 0 0
1.7301 3.002501 -4.66605 1 0 0
1.7301 3.300001 -5.28855 1 0 0
1.7301 3.151251 -4.9773 1 0 0
1.7301 3.151251 -5.601051 1 0 0
1.7301 2.258751 -6.228551 1 0 0
1.7301 2.407501 -5.916051 1 0 0
1.7301 2.705001 -6.538551 1 0 0
1.7301 2.556251 -6.227301 1 0 0
1.7301 2.556251 -6.851051 1 0 0
1.7301 2.556251 -5.603551 1 0 0
1.7301 2.705001 -5.29105 1 0 0
1.7301 3.300001 -7.783553 0.9999999 0 0
1.7301 3.151251 -7.472302 1 0 0
1.7301 3.151251 -8.096052 1 0 0
1.7301 3.151251 -6.224802 1 0 0
1.7301 3.151251 -6.848551 1 0 0
1.7301 3.300001 -6.536051 1 0 0
1.7301 2.853751 -7.473552 1 0 0
1.7301 3.002501 -7.161052 1 0 0
1.7301 2.853751 -6.849802 1 0 0
1.7301 2.853751 -5.602301 1 0 0
1.7301 2.853751 -6.226051 1 0 0
1.7301 3.002501 -5.913551 1 0 0
1.7301 1.5825 -5.6048 1 0 0
1.7301 1.84625 -5.917301 1 0 0
1.7301 1.055 -4.9798 1 0 0
1.7301 1.31875 -5.2923 1 0 0
1.7301 1.31875 -5.917301 1 0 0
1.7301 1.31875 -5.6048 1 0 0
1.7301 1.055 -5.6048 1 0 0
1.7301 -4.446266E-07 -3.729799 1 0 0
1.7301 0.2637497 -4.042299 1 0 0
1.7301 0.2637496 -4.6673 1 0 0
1.7301 0.2637496 -4.3548 1 0 0
1.7301 -5.191325E-07 -4.354799 1 0 0
1.7301 0.5274998 -4.3548 1 0 0
1.7301 0.7912499 -4.6673 1 0 0
1.7301 0.2637495 -5.9173 1 0 0
1.7301 0.2637495 -5.6048 1 0 0
1.7301 -6.681442E-07 -5.6048 1 0 0
1.7301 0.7912498 -5.6048 1 0 0
1.7301 0.5274996 -5.6048 1 0 0
1.7301 0.7912498 -5.917301 1 0 0
1.7301 -5.936383E-07 -4.9798 1 0 0
1.7301 0.2637495 -5.2923 1 0 0
1.7301 0.2637495 -4.9798 1 0 0
1.7301 0.7912499 -4.9798 1 0 0
1.7301 0.5274997 -4.9798 1 0 0
1.7301 0.7912498 -5.2923 1 0 0
-0.3999002 -0.2470008 -5.1773 -1 0 0
-0.3999002 -6.171822E-07 -5.1773 -1 0 0
-0.3999002 -1.011765E-06 -8.487302 -1 0 0
-0.3999002 -0.2470012 -8.487302 -1 0 0
-0.3999002 -0.2470012 -8.487302 0 0 -1
-0.3999002 -1.011765E-06 -8.487302 0 0 -1
-5.8799 -1.011765E-06 -8.487302 0 0 -1
-5.8799 -0.2470012 -8.487302 0 0 -1
-5.8799 -0.2470012 -8.487302 1 0 0
-5.8799 -1.011765E-06 -8.487302 1 0 0
-5.8799 -6.171822E-07 -5.1773 1 0 0
-5.8799 -0.2470008 -5.1773 1 0 0
-5.8799 -0.2470008 -5.1773 0 0 1
-5.8799 -6.171822E-07 -5.1773 0 0 1
-0.3999002 -6.171822E-07 -5.1773 0 0 1
-0.3999002 -0.2470008 -5.1773 0 0 1
-0.3999002 -1.011765E-06 -8.487302 0 1 0
-0.3999002 -6.171822E-07 -5.1773 0 1 0
-5.8799 -1.011765E-06 -8.487302 0 1 0
-5.8799 -6.171822E-07 -5.1773 0 1 0
-5.8799 -0.2470012 -8.487302 0 -1 0
-0.3999002 -0.2470008 -5.1773 0 -1 0
-0.3999002 -0.2470012 -8.487302 0 -1 0
-5.8799 -0.2470008 -5.1773 0 -1 0
-0.3999002 -8.144737E-07 -6.832302 0 1 0
-3.1399 -8.144737E-07 -6.832302 0 1 0
-3.1399 -1.011765E-06 -8.487302 0 1 0
-3.1399 -6.171822E-07 -5.1773 0 1 0
-5.8799 -8.144737E-07 -6.832302 0 1 0
-3.1399 -0.247001 -6.832301 0 -1 0
-0.3999002 -0.247001 -6.832301 0 -1 0
-3.1399 -0.2470012 -8.487302 0 -1 0
-5.8799 -0.247001 -6.832301 0 -1 0
-3.1399 -0.2470008 -5.1773 0 -1 0
-0.3999002 -9.131194E-07 -7.659802 0 0.9999999 0
-1.7699 -9.131194E-07 -7.659802 0 1 0
-1.7699 -1.011765E-06 -8.487302 0 1 0
-1.7699 -7.158279E-07 -6.004801 0 1 0
-1.7699 -8.144737E-07 -6.832302 0 1 0
-0.3999002 -7.158279E-07 -6.004801 0 1 0
-4.5099 -1.011765E-06 -8.487302 0 1 0
-3.1399 -9.131194E-07 -7.659802 0 1 0
-4.5099 -9.131194E-07 -7.659802 0 1 0
-1.7699 -6.171822E-07 -5.1773 0 0.9999999 0
-3.1399 -7.158279E-07 -6.004801 0 1 0
-5.8799 -7.158279E-07 -6.004801 0 1 0
-4.5099 -7.158279E-07 -6.004801 0 1 0
-4.5099 -6.171822E-07 -5.1773 0 0.9999999 0
-4.5099 -8.144737E-07 -6.832302 0 1 0
-5.8799 -9.131194E-07 -7.659802 0 0.9999999 0
-4.5099 -0.2470011 -7.659802 0 -1 0
-3.1399 -0.2470011 -7.659802 0 -1 0
-4.5099 -0.2470012 -8.487302 0 -1 0
-0.3999002 -0.2470009 -6.0048 0 -1 0
-1.7699 -0.247001 -6.832301 0 -1 0
-1.7699 -0.2470009 -6.0048 0 -1 0
-1.7699 -0.2470012 -8.487302 0 -1 0
-1.7699 -0.2470011 -7.659802 0 -1 0
-0.3999002 -0.2470011 -7.659802 0 -0.9999999 0
-5.8799 -0.2470011 -7.659802 0 -0.9999999 0
-4.5099 -0.247001 -6.832301 0 -1 0
-4.5099 -0.2470008 -5.1773 0 -0.9999999 0
-4.5099 -0.2470009 -6.0048 0 -1 0
-5.8799 -0.2470009 -6.0048 0 -1 0
-3.1399 -0.2470009 -6.0048 0 -1 0
-1.7699 -0.2470008 -5.1773 0 -0.9999999 0
-0.3999002 -9.624423E-07 -8.073552 0 1 0
-1.0849 -9.624423E-07 -8.073552 0 1 0
-1.0849 -1.011765E-06 -8.487302 0 1 0
-1.0849 -8.637965E-07 -7.246051 0 1 0
-1.0849 -9.131194E-07 -7.659802 0 1 0
-0.3999002 -8.637965E-07 -7.246051 0 1 0
-2.4549 -1.011765E-06 -8.487302 0 1 0
-1.7699 -9.624423E-07 -8.073552 0 1 0
-2.4549 -9.624423E-07 -8.073552 0 1 0
-1.0849 -6.665051E-07 -5.591051 0 1 0
-1.0849 -7.158279E-07 -6.004801 0 1 0
-0.3999002 -6.665051E-07 -5.591051 0 1 0
-2.4549 -8.144737E-07 -6.832302 0 1 0
-1.7699 -7.651508E-07 -6.418551 0 1 0
-2.4549 -7.651508E-07 -6.418551 0 1 0
-0.3999002 -7.651508E-07 -6.418551 0 0.9999999 0
-1.0849 -7.651508E-07 -6.418551 0 1 0
-1.0849 -8.144737E-07 -6.832302 0 1 0
-5.1949 -1.011765E-06 -8.487302 0 1 0
-4.5099 -9.624423E-07 -8.073552 0 1 0
-5.1949 -9.624423E-07 -8.073552 0 1 0
-3.1399 -9.624423E-07 -8.073552 0 1 0
-3.8249 -9.624423E-07 -8.073552 0 1 0
-3.8249 -1.011765E-06 -8.487302 0 0.9999999 0
-3.8249 -8.637965E-07 -7.246051 0 1 0
-3.8249 -9.131194E-07 -7.659802 0 1 0
-3.1399 -8.637965E-07 -7.246051 0 1 0
-1.7699 -8.637965E-07 -7.246051 0 1 0
-2.4549 -8.637965E-07 -7.246051 0 1 0
-2.4549 -9.131194E-07 -7.659802 0 1 0
-1.0849 -6.171822E-07 -5.1773 0 0.9999999 0
-1.7699 -6.665051E-07 -5.591051 0 1 0
-3.1399 -6.665051E-07 -5.591051 0 1 0
-2.4549 -6.665051E-07 -5.591051 0 1 0
-2.4549 -6.171822E-07 -5.1773 0 0.9999999 0
-2.4549 -7.158279E-07 -6.004801 0 1 0
-3.1399 -7.651508E-07 -6.418551 0 1 0
-5.8799 -6.665051E-07 -5.591051 0 1 0
-5.1949 -6.665051E-07 -5.591051 0 1 0
-5.1949 -6.171822E-07 -5.1773 0 0.9999999 0
-5.1949 -7.651508E-07 -6.418551 0 1 0
-5.1949 -7.158279E-07 -6.004801 0 1 0
-5.8799 -7.651508E-07 -6.418551 0 0.9999999 0
-3.8249 -6.171822E-07 -5.1773 0 1 0
-4.5099 -6.665051E-07 -5.591051 0 1 0
-3.8249 -6.665051E-07 -5.591051 0 1 0
-5.1949 -9.131194E-07 -7.659802 0 1 0
-5.8799 -9.624423E-07 -8.073552 0 1 0
-3.8249 -8.144737E-07 -6.832302 0 1 0
-4.5099 -8.637965E-07 -7.246051 0 1 0
-5.8799 -8.637965E-07 -7.246051 0 1 0
-5.1949 -8.637965E-07 -7.246051 0 1 0
-5.1949 -8.144737E-07 -6.832302 0 1 0
-3.8249 -7.158279E-07 -6.004801 0 1 0
-4.5099 -7.651508E-07 -6.418551 0 1 0
-3.8249 -7.651508E-07 -6.418551 0 1 0
-5.1949 -0.2470011 -8.073552 0 -1 0
-4.5099 -0.2470011 -8.073552 0 -1 0
-5.1949 -0.2470012 -8.487302 0 -1 0
-3.1399 -0.247001 -7.246051 0 -1 0
-3.8249 -0.2470011 -7.659802 0 -1 0
-3.8249 -0.247001 -7.246051 0 -1 0
-3.8249 -0.2470012 -8.487302 0 -0.9999999 0
-3.8249 -0.2470011 -8.073552 0 -1 0
-3.1399 -0.2470011 -8.073552 0 -1 0
-0.3999002 -0.2470008 -5.591051 0 -1 0
-1.0849 -0.2470009 -6.0048 0 -1 0
-1.0849 -0.2470008 -5.591051 0 -1 0
-1.0849 -0.247001 -6.832301 0 -1 0
-1.0849 -0.2470009 -6.418551 0 -1 0
-0.3999002 -0.2470009 -6.418551 0 -0.9999999 0
-2.4549 -0.2470009 -6.418551 0 -1 0
-1.7699 -0.2470009 -6.418551 0 -1 0
-2.4549 -0.247001 -6.832301 0 -1 0
-1.0849 -0.2470012 -8.487302 0 -1 0
-1.0849 -0.2470011 -8.073552 0 -1 0
-0.3999002 -0.2470011 -8.073552 0 -1 0
-2.4549 -0.2470011 -8.073552 0 -1 0
-1.7699 -0.2470011 -8.073552 0 -1 0
-2.4549 -0.2470012 -8.487302 0 -1 0
-0.3999002 -0.247001 -7.246051 0 -1 0
-1.0849 -0.2470011 -7.659802 0 -1 0
-1.0849 -0.247001 -7.246051 0 -1 0
-2.4549 -0.247001 -7.246051 0 -1 0
-1.7699 -0.247001 -7.246051 0 -1 0
-2.4549 -0.2470011 -7.659802 0 -1 0
-5.8799 -0.2470011 -8.073552 0 -1 0
-5.1949 -0.2470011 -7.659802 0 -1 0
-5.1949 -0.247001 -6.832301 0 -1 0
-5.1949 -0.247001 -7.246051 0 -1 0
-5.8799 -0.247001 -7.246051 0 -1 0
-4.5099 -0.247001 -7.246051 0 -1 0
-3.8249 -0.247001 -6.832301 0 -1 0
-5.1949 -0.2470008 -5.1773 0 -0.9999999 0
-5.1949 -0.2470008 -5.591051 0 -1 0
-5.8799 -0.2470008 -5.591051 0 -1 0
-3.8249 -0.2470008 -5.591051 0 -1 0
-4.5099 -0.2470008 -5.591051 0 -1 0
-3.8249 -0.2470008 -5.1773 0 -1 0
-5.8799 -0.2470009 -6.418551 0 -0.9999999 0
-5.1949 -0.2470009 -6.0048 0 -1 0
-5.1949 -0.2470009 -6.418551 0 -1 0
-1.7699 -0.2470008 -5.591051 0 -1 0
-1.0849 -0.2470008 -5.1773 0 -0.9999999 0
-3.1399 -0.2470009 -6.418551 0 -1 0
-2.4549 -0.2470009 -6.0048 0 -1 0
-2.4549 -0.2470008 -5.1773 0 -0.9999999 0
-2.4549 -0.2470008 -5.591051 0 -1 0
-3.1399 -0.2470008 -5.591051 0 -1 0
-4.5099 -0.2470009 -6.418551 0 -1 0
-3.8249 -0.2470009 -6.0048 0 -1 0
-3.8249 -0.2470009 -6.418551 0 -1 0
-1.1699 -0.2469995 5.342706 -1 0 0
-1.1699 6.369001E-07 5.342706 -1 0 0
-1.1699 9.330551E-08 0.7827035 -1 0 0
-1.1699 -0.2470001 0.7827035 -1 0 0
-1.1699 -0.2470001 0.7827035 0 0 -1
-1.1699 9.330551E-08 0.7827035 0 0 -1
-5.7299 9.330551E-08 0.7827035 0 0 -1
-5.7299 -0.2470001 0.7827035 0 0 -1
-5.7299 -0.2470001 0.7827035 1 0 0
-5.7299 9.330551E-08 0.7827035 1 0 0
-5.7299 6.369001E-07 5.342706 1 0 0
-5.7299 -0.2469995 5.342706 1 0 0
-5.7299 -0.2469995 5.342706 0 0 1
-5.7299 6.369001E-07 5.342706 0 0 1
-1.1699 6.369001E-07 5.342706 0 0 1
-1.1699 -0.2469995 5.342706 0 0 1
-1.1699 9.330551E-08 0.7827035 0 1 0
-1.1699 6.369001E-07 5.342706 0 0.9999999 0
-5.7299 9.330551E-08 0.7827035 0 1 0
-5.7299 6.369001E-07 5.342706 0 1 0
-5.7299 -0.2470001 0.7827035 0 -1 0
-1.1699 -0.2469995 5.342706 0 -0.9999999 0
-1.1699 -0.2470001 0.7827035 0 -1 0
-5.7299 -0.2469995 5.342706 0 -1 0
-1.1699 3.651028E-07 3.062705 0 1 0
-3.4499 3.651028E-07 3.062705 0 1 0
-3.4499 9.330551E-08 0.7827035 0 0.9999999 0
-3.4499 6.369001E-07 5.342706 0 1 0
-5.7299 3.651028E-07 3.062705 0 1 0
-3.4499 -0.2469998 3.062705 0 -1 0
-1.1699 -0.2469998 3.062705 0 -1 0
-3.4499 -0.2470001 0.7827035 0 -0.9999999 0
-5.7299 -0.2469998 3.062705 0 -1 0
-3.4499 -0.2469995 5.342706 0 -1 0
-1.1699 2.292042E-07 1.922704 0 1 0
-2.3099 2.292042E-07 1.922704 0 1 0
-2.3099 9.330551E-08 0.7827035 0 1 0
-2.3099 5.010015E-07 4.202705 0 1 0
-2.3099 3.651028E-07 3.062705 0 1 0
-1.1699 5.010015E-07 4.202705 0 1 0
-4.5899 9.330551E-08 0.7827035 0 1 0
-3.4499 2.292042E-07 1.922704 0 0.9999999 0
-4.5899 2.292042E-07 1.922704 0 1 0
-2.3099 6.369001E-07 5.342706 0 1 0
-3.4499 5.010015E-07 4.202705 0 1 0
-5.7299 5.010015E-07 4.202705 0 1 0
-4.5899 5.010015E-07 4.202705 0 1 0
-4.5899 6.369001E-07 5.342706 0 0.9999999 0
-4.5899 3.651028E-07 3.062705 0 1 0
-5.7299 2.292042E-07 1.922704 0 1 0
-4.5899 -0.2469999 1.922704 0 -1 0
-3.4499 -0.2469999 1.922704 0 -0.9999999 0
-4.5899 -0.2470001 0.7827035 0 -1 0
-1.1699 -0.2469997 4.202705 0 -1 0
-2.3099 -0.2469998 3.062705 0 -1 0
-2.3099 -0.2469997 4.202705 0 -1 0
-2.3099 -0.2470001 0.7827035 0 -1 0
-2.3099 -0.2469999 1.922704 0 -1 0
-1.1699 -0.2469999 1.922704 0 -1 0
-5.7299 -0.2469999 1.922704 0 -1 0
-4.5899 -0.2469998 3.062705 0 -1 0
-4.5899 -0.2469995 5.342706 0 -0.9999999 0
-4.5899 -0.2469997 4.202705 0 -1 0
-5.7299 -0.2469997 4.202705 0 -1 0
-3.4499 -0.2469997 4.202705 0 -1 0
-2.3099 -0.2469995 5.342706 0 -1 0
-1.1699 1.612548E-07 1.352704 0 1 0
-1.7399 1.612548E-07 1.352704 0 1 0
-1.7399 9.330551E-08 0.7827035 0 1 0
-1.7399 2.971535E-07 2.492704 0 1 0
-1.7399 2.292042E-07 1.922704 0 1 0
-1.1699 2.971535E-07 2.492704 0 1 0
-2.8799 9.330551E-08 0.7827035 0 1 0
-2.3099 1.612548E-07 1.352704 0 1 0
-2.8799 1.612548E-07 1.352704 0 0.9999999 0
-1.7399 5.689508E-07 4.772706 0 1 0
-1.7399 5.010015E-07 4.202705 0 1 0
-1.1699 5.689508E-07 4.772706 0 1 0
-2.8799 3.651028E-07 3.062705 0 1 0
-2.3099 4.330521E-07 3.632705 0 1 0
-2.8799 4.330521E-07 3.632705 0 1 0
-1.1699 4.330521E-07 3.632705 0 0.9999999 0
-1.7399 4.330521E-07 3.632705 0 1 0
-1.7399 3.651028E-07 3.062705 0 0.9999999 0
-5.1599 9.330551E-08 0.7827035 0 0.9999999 0
-4.5899 1.612548E-07 1.352704 0 1 0
-5.1599 1.612548E-07 1.352704 0 0.9999999 0
-3.4499 1.612548E-07 1.352704 0 0.9999999 0
-4.0199 1.612548E-07 1.352704 0 1 0
-4.0199 9.330551E-08 0.7827035 0 1 0
-4.0199 2.971535E-07 2.492704 0 1 0
-4.0199 2.292042E-07 1.922704 0 1 0
-3.4499 2.971535E-07 2.492704 0 0.9999999 0
-2.3099 2.971535E-07 2.492704 0 1 0
-2.8799 2.971535E-07 2.492704 0 1 0
-2.8799 2.292042E-07 1.922704 0 0.9999999 0
-1.7399 6.369001E-07 5.342706 0 1 0
-2.3099 5.689508E-07 4.772706 0 1 0
-3.4499 5.689508E-07 4.772706 0 1 0
-2.8799 5.689508E-07 4.772706 0 1 0
-2.8799 6.369001E-07 5.342706 0 1 0
-2.8799 5.010015E-07 4.202705 0 0.9999999 0
-3.4499 4.330521E-07 3.632705 0 1 0
-5.7299 5.689508E-07 4.772706 0 0.9999999 0
-5.1599 5.689508E-07 4.772706 0 1 0
-5.1599 6.369001E-07 5.342706 0 1 0
-5.1599 4.330521E-07 3.632705 0 0.9999999 0
-5.1599 5.010015E-07 4.202705 0 1 0
-5.7299 4.330521E-07 3.632705 0 1 0
-4.0199 6.369001E-07 5.342706 0 1 0
-4.5899 5.689508E-07 4.772706 0 1 0
-4.0199 5.689508E-07 4.772706 0 1 0
-5.1599 2.292042E-07 1.922704 0 0.9999999 0
-5.7299 1.612548E-07 1.352704 0 1 0
-4.0199 3.651028E-07 3.062705 0 1 0
-4.5899 2.971535E-07 2.492704 0 1 0
-5.7299 2.971535E-07 2.492704 0 1 0
-5.1599 2.971535E-07 2.492704 0 0.9999999 0
-5.1599 3.651028E-07 3.062705 0 1 0
-4.0199 5.010015E-07 4.202705 0 1 0
-4.5899 4.330521E-07 3.632705 0 1 0
-4.0199 4.330521E-07 3.632705 0 1 0
-5.1599 -0.247 1.352704 0 -0.9999999 0
-4.5899 -0.247 1.352704 0 -1 0
-5.1599 -0.2470001 0.7827035 0 -0.9999999 0
-3.4499 -0.2469999 2.492704 0 -0.9999999 0
-4.0199 -0.2469999 1.922704 0 -1 0
-4.0199 -0.2469999 2.492704 0 -1 0
-4.0199 -0.2470001 0.7827035 0 -1 0
-4.0199 -0.247 1.352704 0 -1 0
-3.4499 -0.247 1.352704 0 -0.9999999 0
-1.1699 -0.2469996 4.772706 0 -1 0
-1.7399 -0.2469997 4.202705 0 -1 0
-1.7399 -0.2469996 4.772706 0 -1 0
-1.7399 -0.2469998 3.062705 0 -0.9999999 0
-1.7399 -0.2469997 3.632705 0 -1 0
-1.1699 -0.2469997 3.632705 0 -0.9999999 0
-2.8799 -0.2469997 3.632705 0 -1 0
-2.3099 -0.2469997 3.632705 0 -1 0
-2.8799 -0.2469998 3.062705 0 -1 0
-1.7399 -0.2470001 0.7827035 0 -1 0
-1.7399 -0.247 1.352704 0 -1 0
-1.1699 -0.247 1.352704 0 -1 0
-2.8799 -0.247 1.352704 0 -0.9999999 0
-2.3099 -0.247 1.352704 0 -1 0
-2.8799 -0.2470001 0.7827035 0 -1 0
-1.1699 -0.2469999 2.492704 0 -1 0
-1.7399 -0.2469999 1.922704 0 -1 0
-1.7399 -0.2469999 2.492704 0 -1 0
-2.8799 -0.2469999 2.492704 0 -1 0
-2.3099 -0.2469999 2.492704 0 -1 0
-2.8799 -0.2469999 1.922704 0 -0.9999999 0
-5.7299 -0.247 1.352704 0 -1 0
-5.1599 -0.2469999 1.922704 0 -0.9999999 0
-5.1599 -0.2469998 3.062705 0 -1 0
-5.1599 -0.2469999 2.492704 0 -1 0
-5.7299 -0.2469999 2.492704 0 -1 0
-4.5899 -0.2469999 2.492704 0 -1 0
-4.0199 -0.2469998 3.062705 0 -1 0
-5.1599 -0.2469995 5.342706 0 -1 0
-5.1599 -0.2469996 4.772706 0 -1 0
-5.7299 -0.2469996 4.772706 0 -0.9999999 0
-4.0199 -0.2469996 4.772706 0 -1 0
-4.5899 -0.2469996 4.772706 0 -1 0
-4.0199 -0.2469995 5.342706 0 -1 0
-5.7299 -0.2469997 3.632705 0 -1 0
-5.1599 -0.2469997 4.202705 0 -1 0
-5.1599 -0.2469997 3.632705 0 -0.9999999 0
-2.3099 -0.2469996 4.772706 0 -1 0
-1.7399 -0.2469995 5.342706 0 -1 0
-3.4499 -0.2469997 3.632705 0 -1 0
-2.8799 -0.2469997 4.202705 0 -0.9999999 0
-2.8799 -0.2469995 5.342706 0 -1 0
-2.8799 -0.2469996 4.772706 0 -1 0
-3.4499 -0.2469996 4.772706 0 -1 0
-4.5899 -0.2469997 3.632705 0 -1 0
-4.0199 -0.2469997 4.202705 0 -1 0
-4.0199 -0.2469997 3.632705 0 -1 0
-1.1699 1.272802E-07 1.067704 0 1 0
-1.4549 1.272802E-07 1.067704 0 1 0
-1.4549 9.330551E-08 0.7827035 0 1 0
-1.4549 1.952295E-07 1.637704 0 0.9999999 0
-1.4549 1.612548E-07 1.352704 0 0.9999999 0
-1.1699 1.952295E-07 1.637704 0 1 0
-2.0249 9.330551E-08 0.7827035 0 1 0
-1.7399 1.272802E-07 1.067704 0 0.9999999 0
-2.0249 1.272802E-07 1.067704 0 1 0
-1.4549 3.311281E-07 2.777704 0 1 0
-1.4549 2.971535E-07 2.492704 0 0.9999999 0
-1.1699 3.311281E-07 2.777704 0 0.9999999 0
-2.0249 2.292042E-07 1.922704 0 0.9999999 0
-1.7399 2.631788E-07 2.207704 0 0.9999999 0
-2.0249 2.631788E-07 2.207704 0 1 0
-1.1699 2.631788E-07 2.207704 0 1 0
-1.4549 2.631788E-07 2.207704 0 0.9999999 0
-1.4549 2.292042E-07 1.922704 0 0.9999999 0
-3.1649 9.330551E-08 0.7827035 0 1 0
-2.8799 1.272802E-07 1.067704 0 1 0
-3.1649 1.272802E-07 1.067704 0 1 0
-2.3099 1.272802E-07 1.067704 0 1 0
-2.5949 1.272802E-07 1.067704 0 1 0
-2.5949 9.330551E-08 0.7827035 0 0.9999999 0
-2.5949 1.952295E-07 1.637704 0 1 0
-2.5949 1.612548E-07 1.352704 0 1 0
-2.3099 1.952295E-07 1.637704 0 1 0
-1.7399 1.952295E-07 1.637704 0 1 0
-2.0249 1.952295E-07 1.637704 0 0.9999999 0
-2.0249 1.612548E-07 1.352704 0 0.9999999 0
-1.4549 6.029255E-07 5.057706 0 1 0
-1.4549 5.689508E-07 4.772706 0 1 0
-1.1699 6.029255E-07 5.057706 0 1 0
-2.0249 5.010015E-07 4.202705 0 0.9999999 0
-1.7399 5.349762E-07 4.487706 0 0.9999999 0
-2.0249 5.349762E-07 4.487706 0 1 0
-1.1699 5.349762E-07 4.487706 0 0.9999999 0
-1.4549 5.349762E-07 4.487706 0 1 0
-1.4549 5.010015E-07 4.202705 0 0.9999999 0
-3.1649 3.651028E-07 3.062705 0 1 0
-2.8799 3.990775E-07 3.347705 0 1 0
-3.1649 3.990775E-07 3.347705 0 1 0
-2.3099 3.990775E-07 3.347705 0 1 0
-2.5949 3.990775E-07 3.347705 0 1 0
-2.5949 3.651028E-07 3.062705 0 1 0
-2.5949 4.670268E-07 3.917705 0 1 0
-2.5949 4.330521E-07 3.632705 0 1 0
-2.3099 4.670268E-07 3.917705 0 1 0
-1.1699 3.990775E-07 3.347705 0 1 0
-1.4549 3.990775E-07 3.347705 0 1 0
-1.4549 3.651028E-07 3.062705 0 1 0
-1.4549 4.670268E-07 3.917705 0 1 0
-1.4549 4.330521E-07 3.632705 0 1 0
-1.1699 4.670268E-07 3.917705 0 1 0
-2.0249 3.651028E-07 3.062705 0 1 0
-1.7399 3.990775E-07 3.347705 0 1 0
-2.0249 3.990775E-07 3.347705 0 0.9999999 0
-2.0249 4.670268E-07 3.917705 0 1 0
-2.0249 4.330521E-07 3.632705 0 1 0
-1.7399 4.670268E-07 3.917705 0 0.9999999 0
-5.444901 9.330551E-08 0.7827035 0 1 0
-5.1599 1.272802E-07 1.067704 0 0.9999999 0
-5.444901 1.272802E-07 1.067704 0 1 0
-4.5899 1.272802E-07 1.067704 0 1 0
-4.8749 1.272802E-07 1.067704 0 1 0
-4.8749 9.330551E-08 0.7827035 0 1 0
-4.8749 1.952295E-07 1.637704 0 1 0
-4.8749 1.612548E-07 1.352704 0 1 0
-4.5899 1.952295E-07 1.637704 0 1 0
-3.4499 1.272802E-07 1.067704 0 1 0
-3.7349 1.272802E-07 1.067704 0 1 0
-3.7349 9.330551E-08 0.7827035 0 1 0
-3.7349 1.952295E-07 1.637704 0 0.9999999 0
-3.7349 1.612548E-07 1.352704 0 0.9999999 0
-3.4499 1.952295E-07 1.637704 0 0.9999999 0
-4.3049 9.330551E-08 0.7827035 0 1 0
-4.0199 1.272802E-07 1.067704 0 1 0
-4.3049 1.272802E-07 1.067704 0 1 0
-3.7349 3.311281E-07 2.777704 0 1 0
-3.7349 2.971535E-07 2.492704 0 1 0
-3.4499 3.311281E-07 2.777704 0 1 0
-4.3049 2.292042E-07 1.922704 0 1 0
-4.0199 2.631788E-07 2.207704 0 1 0
-4.3049 2.631788E-07 2.207704 0 1 0
-3.4499 2.631788E-07 2.207704 0 1 0
-3.7349 2.631788E-07 2.207704 0 1 0
-3.7349 2.292042E-07 1.922704 0 0.9999999 0
-4.3049 1.612548E-07 1.352704 0 1 0
-4.0199 1.952295E-07 1.637704 0 0.9999999 0
-4.3049 1.952295E-07 1.637704 0 1 0
-1.7399 3.311281E-07 2.777704 0 1 0
-2.3099 3.311281E-07 2.777704 0 0.9999999 0
-2.0249 3.311281E-07 2.777704 0 1 0
-2.0249 2.971535E-07 2.492704 0 1 0
-2.3099 2.631788E-07 2.207704 0 0.9999999 0
-3.1649 3.311281E-07 2.777704 0 1 0
-3.1649 2.631788E-07 2.207704 0 0.9999999 0
-3.1649 2.971535E-07 2.492704 0 1 0
-2.8799 3.311281E-07 2.777704 0 1 0
-2.5949 3.311281E-07 2.777704 0 1 0
-3.1649 1.612548E-07 1.352704 0 1 0
-2.5949 2.292042E-07 1.922704 0 1 0
-2.8799 1.952295E-07 1.637704 0 0.9999999 0
-3.1649 1.952295E-07 1.637704 0 1 0
-3.1649 2.292042E-07 1.922704 0 1 0
-2.5949 2.971535E-07 2.492704 0 1 0
-2.8799 2.631788E-07 2.207704 0 1 0
-2.5949 2.631788E-07 2.207704 0 1 0
-1.4549 6.369001E-07 5.342706 0 1 0
-1.7399 6.029255E-07 5.057706 0 1 0
-2.3099 6.029255E-07 5.057706 0 1 0
-2.0249 6.029255E-07 5.057706 0 1 0
-2.0249 6.369001E-07 5.342706 0 1 0
-2.0249 5.689508E-07 4.772706 0 1 0
-2.3099 5.349762E-07 4.487706 0 1 0
-3.4499 6.029255E-07 5.057706 0 1 0
-3.1649 6.029255E-07 5.057706 0 1 0
-3.1649 6.369001E-07 5.342706 0 1 0
-3.1649 5.349762E-07 4.487706 0 0.9999999 0
-3.1649 5.689508E-07 4.772706 0 1 0
-3.4499 5.349762E-07 4.487706 0 1 0
-2.5949 6.369001E-07 5.342706 0 1 0
-2.8799 6.029255E-07 5.057706 0 1 0
-2.5949 6.029255E-07 5.057706 0 1 0
-3.1649 4.330521E-07 3.632705 0 1 0
-3.4499 3.990775E-07 3.347705 0 1 0
-2.5949 5.010015E-07 4.202705 0 1 0
-2.8799 4.670268E-07 3.917705 0 1 0
-3.4499 4.670268E-07 3.917705 0 1 0
-3.1649 4.670268E-07 3.917705 0 1 0
-3.1649 5.010015E-07 4.202705 0 1 0
-2.5949 5.689508E-07 4.772706 0 1 0
-2.8799 5.349762E-07 4.487706 0 1 0
-2.5949 5.349762E-07 4.487706 0 1 0
-5.7299 6.029255E-07 5.057706 0 0.9999999 0
-5.444901 6.029255E-07 5.057706 0 1 0
-5.444901 6.369001E-07 5.342706 0 1 0
-5.444901 5.349762E-07 4.487706 0 1 0
-5.444901 5.689508E-07 4.772706 0 1 0
-5.7299 5.349762E-07 4.487706 0 1 0
-4.8749 6.369001E-07 5.342706 0 0.9999999 0
-5.1599 6.029255E-07 5.057706 0 1 0
-4.8749 6.029255E-07 5.057706 0 1 0
-5.444901 3.990775E-07 3.347705 0 0.9999999 0
-5.444901 4.330521E-07 3.632705 0 1 0
-5.7299 3.990775E-07 3.347705 0 1 0
-4.8749 5.010015E-07 4.202705 0 0.9999999 0
-5.1599 4.670268E-07 3.917705 0 1 0
-4.8749 4.670268E-07 3.917705 0 1 0
-5.7299 4.670268E-07 3.917705 0 1 0
-5.444901 4.670268E-07 3.917705 0 1 0
-5.444901 5.010015E-07 4.202705 0 0.9999999 0
-3.7349 6.369001E-07 5.342706 0 1 0
-4.0199 6.029255E-07 5.057706 0 1 0
-3.7349 6.029255E-07 5.057706 0 1 0
-4.5899 6.029255E-07 5.057706 0 1 0
-4.3049 6.029255E-07 5.057706 0 1 0
-4.3049 6.369001E-07 5.342706 0 0.9999999 0
-4.3049 5.349762E-07 4.487706 0 1 0
-4.3049 5.689508E-07 4.772706 0 1 0
-4.5899 5.349762E-07 4.487706 0 1 0
-5.1599 5.349762E-07 4.487706 0 1 0
-4.8749 5.349762E-07 4.487706 0 1 0
-4.8749 5.689508E-07 4.772706 0 1 0
-5.444901 1.612548E-07 1.352704 0 1 0
-5.7299 1.272802E-07 1.067704 0 1 0
-4.8749 2.292042E-07 1.922704 0 0.9999999 0
-5.1599 1.952295E-07 1.637704 0 0.9999999 0
-5.7299 1.952295E-07 1.637704 0 1 0
-5.444901 1.952295E-07 1.637704 0 1 0
-5.444901 2.292042E-07 1.922704 0 1 0
-3.7349 3.651028E-07 3.062705 0 1 0
-4.0199 3.311281E-07 2.777704 0 0.9999999 0
-4.5899 3.311281E-07 2.777704 0 1 0
-4.3049 3.311281E-07 2.777704 0 1 0
-4.3049 3.651028E-07 3.062705 0 1 0
-4.3049 2.971535E-07 2.492704 0 1 0
-4.5899 2.631788E-07 2.207704 0 1 0
-5.7299 3.311281E-07 2.777704 0 1 0
-5.444901 3.311281E-07 2.777704 0 1 0
-5.444901 3.651028E-07 3.062705 0 1 0
-5.444901 2.631788E-07 2.207704 0 1 0
-5.444901 2.971535E-07 2.492704 0 1 0
-5.7299 2.631788E-07 2.207704 0 1 0
-4.8749 3.651028E-07 3.062705 0 1 0
-5.1599 3.311281E-07 2.777704 0 0.9999999 0
